-0.117719 0.684998 -2.6862
-0.0946556 0.549022 -2.74295
0.120776 0.807904 -4.14307
-0.11924 0.439774 -2.5533
1.48153 1.97677 -12.6812
-0.0907315 0.411356 -2.71112
-0.188341 0.332371 -2.07774
0.136365 0.568049 -4.14066
-0.20716 0.28982 -1.93396
0.29386 0.659742 -5.12525
0.29386 0.659742 -5.12525
-0.217509 0.247603 -1.85047
-0.217509 0.247603 -1.85047
5.7598 3.84941 -38.5725
-0.156608 0.265463 -2.24565
-0.172289 0.268481 -2.14867
5.55699 3.31753 -37.0487
0.883119 0.773144 -8.66023
0.0782657 0.372536 -3.70559
0.137473 0.397731 -4.07127
-0.0609079 0.298203 -2.83851
-0.100776 0.258088 -2.58179
-0.206878 0.222496 -1.9139
-0.104139 0.251484 -2.55914
0.214231 0.319691 -4.4976
0.139747 0.288364 -4.03666
-0.0622287 0.217154 -2.79445
-0.0488366 0.17234 -2.85488
-0.15321 0.174546 -2.23033
-0.15321 0.174546 -2.23033
-0.180876 0.156591 -2.04715
-0.189726 0.147735 -1.99031
-0.0616141 0.156959 -2.77128
-0.196583 0.132757 -1.93833
-0.206413 0.128503 -1.8741
-0.201089 0.122219 -1.90705
-0.201089 0.122219 -1.90705
-0.233311 0.118452 -1.67202
0.0290452 0.102983 -3.29899
-0.244481 0.109118 -1.60386
0.650981 0.0725703 -6.93234
0.527773 0.0907558 -6.21044
0.554462 0.0702322 -6.35875
-0.147943 0.0863887 -2.21165
-0.160876 0.0729771 -2.12386
-0.175072 0.0967914 -2.05459
0.594262 -0.0832499 -6.51071
-0.246365 0.0771973 -1.57871
0.0073164 -0.0140189 -3.11645
-0.0599505 0.000740375 -2.70491
-0.141087 0.0241772 -2.21454
-0.21124 0.0450663 -1.80011
-0.21124 0.0450663 -1.80011
-2.84037 0.875637 13.0328
0.381541 -0.155979 -5.24944
0.160283 -0.0992086 -3.99973
-0.0338661 -0.0274161 -2.85566
-0.0450069 -0.0363735 -2.78471
-0.238708 0.0479861 -1.60991
-0.0217089 -0.0582682 -2.92177
-0.226577 0.0199045 -1.69131
0.522554 -0.378497 -5.97568
-0.0830061 -0.0893785 -2.52653
-0.111786 -0.0545758 -2.35909
-0.125667 -0.0402881 -2.27745
-0.224886 0.00716344 -1.69554
-0.223639 -0.00180428 -1.69533
-0.240574 0.0128652 -1.58365
-5.61937 2.96026 28.5577
0.958118 -0.683317 -8.38112
0.00419877 -0.14383 -3.04008
-0.153644 -0.0501817 -2.10224
-0.219693 -0.0258107 -1.70774
-0.226433 -0.0230726 -1.66601
-0.0788395 -0.130232 -2.52722
0.901389 -0.909468 -7.92848
0.201087 -0.35351 -4.07937
0.0779096 -0.278513 -3.38136
-0.167092 -0.093598 -1.99868
-0.188668 -0.0816714 -1.87252
-3.08675 2.29194 13.8656
-8.35392 6.55084 42.8138
0.545339 -0.735739 -5.92461
0.151876 -0.360894 -3.77423
0.213403 -0.453584 -4.0982
0.0138923 -0.271351 -2.9967
-0.124067 -0.148235 -2.22864
-0.111911 -0.169881 -2.29644
-0.232063 -0.0620282 -1.60272
-0.25671 -0.0433646 -1.44651
0.0873618 -0.359697 -3.39298
-0.247792 -0.0580535 -1.49914
-0.247792 -0.0580535 -1.49914
-0.243892 -0.0657659 -1.52095
-0.1096 -0.206212 -2.28873
-0.218135 -0.0991301 -1.67375
-0.220017 -0.108325 -1.65872
-0.259831 -0.0554077 -1.38814
-8.67485 8.8738 43.3756
-0.18033 -0.161238 -1.87409
-0.199497 -0.134511 -1.77015
-0.222065 -0.118857 -1.6389
-0.279578 -0.0431444 -1.27085
-0.279578 -0.0431444 -1.27085
-0.285032 -0.0378441 -1.24588
-0.290891 -0.0304865 -1.2175
-0.289083 -0.0390756 -1.22358
1.14265 -1.71585 -8.95372
0.716577 -1.1906 -6.70288
-0.0903992 -0.285016 -2.35634
-0.171887 -0.19137 -1.91019
-0.194729 -0.169687 -1.78243
-0.228858 -0.12378 -1.59407
-0.234546 -0.114441 -1.55919
-0.256397 -0.0775765 -1.39504
-0.256397 -0.0775765 -1.39504
-0.257371 -0.0855425 -1.38638
-0.289437 -0.0487584 -1.21955
-0.295942 -0.037452 -1.18001
1.17727 -1.84308 -9.07723
1.17727 -1.84308 -9.07723
0.501912 -1.03362 -5.51077
0.501912 -1.03362 -5.51077
0.474626 -1.00781 -5.348
0.252391 -0.734496 -4.17481
-0.103447 -0.296383 -2.27995
-0.200899 -0.167599 -1.74732
-0.263222 -0.0811255 -1.35404
-0.261792 -0.0842573 -1.36048
-0.261792 -0.0842573 -1.36048
-0.266425 -0.0856312 -1.33251
-0.268313 -0.0836759 -1.32316
-0.279981 -0.067572 -1.26462
-0.292327 -0.0464447 -1.20307
-0.292327 -0.0464447 -1.20307
-0.30363 -0.0355976 -1.1364
-1.6721 1.6285 5.85005
1.26837 -2.12406 -9.4635
0.51856 -1.08687 -5.57091
0.0857059 -0.566131 -3.26887
0.0793663 -0.548788 -3.24694
0.0434025 -0.508101 -3.04544
0.0587785 -0.532883 -3.12504
0.0258092 -0.502397 -2.93739
-0.0611928 -0.373206 -2.48945
-0.114921 -0.311722 -2.20047
-0.259551 -0.096803 -1.36744
-0.266518 -0.0952248 -1.32797
-0.271745 -0.0889715 -1.30012
-0.271745 -0.0889715 -1.30012
-0.277305 -0.0750023 -1.27171
-0.28149 -0.0713605 -1.25078
-0.283496 -0.0694521 -1.24079
-0.302336 -0.0426622 -1.14023
-0.305986 -0.037899 -1.12293
8.11645 -11.0352 -45.0925
8.12641 -11.3256 -45.0459
2.03371 -3.20164 -13.4591
-0.053597 -0.408562 -2.51878
-0.113116 -0.327556 -2.19914
-0.127825 -0.31349 -2.11437
-0.225208 -0.171329 -1.58785
-0.271592 -0.0918261 -1.29974
-0.271592 -0.0918261 -1.29974
-0.286265 -0.0726519 -1.22255
-0.292844 -0.0661143 -1.18256
-0.301252 -0.0521762 -1.14201
-1.40435 1.3719 4.21093
-0.067593 -0.418926 -2.43188
-0.22047 -0.192686 -1.60898
-0.220379 -0.195149 -1.60849
-0.225773 -0.192611 -1.57528
-0.237021 -0.16698 -1.51588
-0.26237 -0.119133 -1.34973
-0.286155 -0.0825679 -1.21899
-0.288899 -0.087077 -1.20231
-1.15028 1.08674 2.94075
-1.12392 1.07214 2.80593
-1.38463 1.42103 4.06265
-2.65159 3.38867 10.6855
8.0892 -12.4641 -43.8075
0.0148736 -0.577528 -2.84761
-1.28029 1.33653 3.53883
-1.31364 1.40685 3.68985
-2.43252 3.23026 9.48453
1.73724 -3.28962 -11.6032
0.495245 -1.35527 -5.30612
-0.761853 0.574889 0.987747
-1.13782 1.16321 2.82818
-1.13782 1.16321 2.82818
-1.34742 1.51843 3.81613
-2.53525 3.60018 9.91396
-0.888777 0.877694 1.60026
-0.0969341 0.676974 -2.80048
0.329578 1.35498 -5.66306
0.136958 0.890496 -4.26507
-0.0216721 0.652009 -3.22465
-0.0548969 0.615773 -3.00977
0.198167 0.875224 -4.61153
0.162173 0.85606 -4.38899
-0.090675 0.539864 -2.7627
0.543509 1.21223 -6.79161
-0.0182138 0.523111 -3.19472
-0.134772 0.399352 -2.43051
0.0570625 0.539128 -3.66219
-0.0580154 0.449178 -2.92371
-0.138859 0.382407 -2.40421
-0.161394 0.354018 -2.25668
0.513347 0.865006 -6.51346
0.377551 0.748315 -5.65125
0.322262 0.72112 -5.3227
-0.0363775 0.438614 -3.04821
-0.180495 0.308162 -2.1127
-0.189511 0.291861 -2.04762
-0.189511 0.291861 -2.04762
-0.193207 0.289868 -2.02521
0.0114566 0.434313 -3.34112
-0.0459429 0.386349 -2.96821
-0.0459429 0.386349 -2.96821
-0.204676 0.272345 -1.94933
-0.197497 0.261806 -1.98681
0.961933 1.01022 -9.20568
0.485857 0.641974 -6.26852
0.139772 0.458106 -4.12243
0.139772 0.458106 -4.12243
-0.223138 0.23086 -1.80191
2.56309 1.70488 -18.9169
2.56309 1.70488 -18.9169
0.0109123 0.316767 -3.27729
-0.0356121 0.314858 -2.99717
-0.0632317 0.305218 -2.82826
-0.040476 0.299274 -2.96898
-0.135786 0.253997 -2.3647
-0.199281 0.215527 -1.9555
-0.207756 0.204074 -1.90041
-0.220266 0.210366 -1.81763
-6.68708 -2.74969 37.2226
-5.50044 -2.2551 30.0861
5.20242 2.64445 -34.7252
3.28209 1.86359 -23.1751
3.28209 1.86359 -23.1751
0.508812 0.49067 -6.32133
0.0732548 0.30029 -3.64355
-0.0688281 0.246823 -2.77483
-0.174849 0.215399 -2.10957
5.23733 1.93546 -34.7277
0.567829 0.47521 -6.68739
0.567829 0.47521 -6.68739
0.533079 0.41469 -6.45225
0.387474 0.388797 -5.5669
0.111284 0.301242 -3.87227
-4.05387 -0.942791 20.962
0.590825 0.334968 -6.72565
0.590825 0.334968 -6.72565
0.164829 0.252423 -4.17136
-0.039686 0.186804 -2.91575
-0.154845 0.159888 -2.20842
-0.169129 0.156516 -2.12173
-0.232735 0.151263 -1.69319
-0.23633 0.142104 -1.66867
1.40945 0.44275 -11.622
0.886861 0.281367 -8.46867
-0.156127 0.129416 -2.1824
-0.18545 0.126629 -2.00634
-0.189369 0.121428 -1.97589
-0.203822 0.12143 -1.88601
-5.64515 -0.241389 30.0007
0.551802 0.147489 -6.39492
0.551802 0.147489 -6.39492
0.534161 0.11008 -6.27252
0.534161 0.11008 -6.27252
0.480153 0.102099 -5.9488
0.334033 0.112336 -5.08375
0.0868915 0.103594 -3.64704
0.038876 0.120827 -3.36673
-0.00922667 0.129724 -3.08094
-0.0322166 0.110981 -2.93459
-0.119911 0.113677 -2.39654
-0.126969 0.118092 -2.35111
-0.126969 0.118092 -2.35111
-0.115023 0.0990933 -2.4136
-0.143364 0.101847 -2.24111
-0.143364 0.101847 -2.24111
-0.171102 0.104168 -2.07693
-0.231058 0.0984129 -1.67958
-3.4598 0.0810157 17.0809
-3.89797 0.0964213 19.5628
-3.89797 0.0964213 19.5628
-6.61073 0.252621 35.4394
2.12235 -0.0294365 -15.57
-0.0971733 0.076498 -2.50379
-0.124588 0.0854271 -2.34489
-0.17824 0.0832988 -2.02535
-0.230586 0.08732 -1.67741
5.1661 -0.40037 -33.3094
0.536774 -0.058736 -6.18228
-0.0195314 0.0451759 -2.98112
-0.126797 0.0587429 -2.32019
-0.228808 0.0730043 -1.68801
-0.229313 0.0639252 -1.67785
-0.246103 0.0801401 -1.58193
4.92259 -1.22688 -31.5205
0.75064 -0.152806 -7.40571
-0.0244797 0.00767164 -2.93499
-0.0963579 0.0243812 -2.48587
-0.166655 0.0325671 -2.06667
-0.237667 0.0639629 -1.62621
1.42134 -0.471158 -11.2029
-0.187936 0.019874 -1.93052
-0.206451 0.0289468 -1.82118
-0.251896 0.0522586 -1.53005
-2.79079 0.923789 12.7272
3.35953 -1.40906 -22.1676
3.35953 -1.40906 -22.1676
0.960695 -0.416219 -8.53463
0.890651 -0.483478 -8.09123
-0.0216349 -0.0808208 -2.91213
-0.0593355 -0.0635576 -2.68643
-0.0853686 -0.0356503 -2.52465
-0.0668555 -0.0567728 -2.61863
-0.115033 -0.0242736 -2.34747
-0.212802 0.00703076 -1.77005
-0.224161 0.0177211 -1.70453
0.123487 -0.198931 -3.7337
0.0708534 -0.168094 -3.43067
-0.123917 -0.0591808 -2.27944
-0.237676 0.00654575 -1.60092
1.63204 -1.10941 -12.1394
1.63204 -1.10941 -12.1394
0.625288 -0.514295 -6.50883
0.625288 -0.514295 -6.50883
0.278369 -0.316297 -4.57854
0.00424898 -0.165975 -3.0301
-0.137511 -0.060375 -2.19309
-0.1938 -0.0461214 -1.85812
-0.237086 -0.0169015 -1.59378
-0.238416 -0.0141934 -1.5843
3.79285 -2.59182 -24.1421
0.540407 -0.563764 -5.98584
0.0454021 -0.236689 -3.23847
-0.191309 -0.0600243 -1.87083
-0.215881 -0.0441714 -1.72173
6.67587 -5.29658 -39.6436
2.11253 -1.66891 -14.6849
2.11253 -1.66891 -14.6849
0.0505741 -0.243739 -3.23385
-0.0539782 -0.182853 -2.63973
-0.175145 -0.0899584 -1.9486
-0.180148 -0.0929146 -1.91758
-1.73405 1.17115 6.42148
4.89763 -4.23636 -29.8386
0.0438632 -0.276596 -3.1792
-0.0239127 -0.233547 -2.78956
-0.243896 -0.0470153 -1.52918
6.44853 -5.81526 -38.0525
0.309717 -0.57376 -4.60424
0.0621588 -0.366278 -3.24077
-0.0391558 -0.247153 -2.69294
-0.129779 -0.168961 -2.18568
-0.142711 -0.153934 -2.1113
-0.255137 -0.0452186 -1.45471
-2.87048 2.4179 12.532
7.01574 -7.19438 -40.7362
2.16614 -2.50691 -14.5607
0.818501 -1.14473 -7.31995
0.554337 -0.869271 -5.90427
-0.130564 -0.186029 -2.17347
-0.246889 -0.0770422 -1.49595
-0.25313 -0.0628424 -1.45838
-0.254289 -0.0625081 -1.45196
-0.289673 -0.0283104 -1.22298
-2.23905 1.89105 9.04112
1.78911 -2.16018 -12.5451
0.324308 -0.725372 -4.62467
-0.0469686 -0.301676 -2.62282
-0.0829221 -0.275803 -2.41013
-0.105739 -0.249393 -2.287
-0.274812 -0.0529351 -1.29438
-0.284236 -0.0393123 -1.24954
-3.05728 2.99452 13.327
-8.6437 9.03456 43.2008
3.76399 -4.65515 -22.8413
3.76399 -4.65515 -22.8413
0.293327 -0.706831 -4.45011
-0.0709159 -0.300465 -2.46991
-0.172096 -0.185027 -1.91177
-0.196352 -0.163351 -1.77575
-0.23089 -0.12764 -1.57754
-0.256281 -0.0868068 -1.39178
-0.273683 -0.0590913 -1.29569
-0.273667 -0.0644651 -1.29353
-0.276904 -0.0587903 -1.27855
-0.294868 -0.0382646 -1.18352
-0.302794 -0.0323666 -1.1422
-1.55899 1.42772 5.29437
-1.65772 1.48566 5.84385
-1.60856 1.47438 5.55457
-3.29767 3.55525 14.4315
0.336749 -0.843037 -4.62341
0.015562 -0.450051 -2.91409
-0.056165 -0.3407 -2.53922
-0.203737 -0.17177 -1.72552
-0.203737 -0.17177 -1.72552
-0.208964 -0.157739 -1.69769
-0.220537 -0.147618 -1.63164
-0.240135 -0.122083 -1.51486
-0.240146 -0.127421 -1.51529
-0.258088 -0.09141 -1.38001
-0.258088 -0.09141 -1.38001
-0.25768 -0.094316 -1.37858
-0.264334 -0.0780474 -1.34936
-0.264889 -0.0861055 -1.34063
-0.2815 -0.0578353 -1.25637
-0.283934 -0.0576531 -1.24546
-0.283934 -0.0576531 -1.24546
-0.286242 -0.0575209 -1.23105
-0.292431 -0.0476378 -1.20007
-0.296929 -0.0469158 -1.17075
-0.30395 -0.0331241 -1.13575
-8.89336 10.8283 43.6112
1.61751 -2.49344 -11.3387
0.738835 -1.39333 -6.72906
0.172468 -0.669898 -3.72389
0.0685327 -0.549237 -3.17508
-0.187386 -0.206877 -1.80506
-0.192316 -0.19685 -1.7845
-0.216982 -0.174082 -1.63734
-0.259145 -0.0996564 -1.36606
-0.26651 -0.0896996 -1.33033
-0.2677 -0.0950701 -1.32162
-0.270879 -0.0889362 -1.30698
-0.270879 -0.0889362 -1.30698
-0.276566 -0.0790089 -1.27612
-0.278822 -0.0752138 -1.2656
-0.293847 -0.0589293 -1.18021
-3.85483 4.66898 17.1553
-4.81662 6.07978 22.0692
0.587029 -1.25709 -5.8992
-0.115575 -0.332054 -2.18283
-0.184929 -0.227605 -1.80652
-0.197796 -0.207371 -1.74429
-0.20656 -0.19607 -1.69135
-0.237525 -0.156107 -1.51778
-0.280383 -0.0824056 -1.25203
-0.283409 -0.0793245 -1.23709
-0.292813 -0.0720628 -1.18582
-1.15259 1.07112 2.95895
-1.61313 1.70297 5.4554
-1.61313 1.70297 5.4554
-1.83472 1.99873 6.59671
-1.79257 1.96363 6.37386
-1.86478 2.12293 6.71548
3.7098 -5.90574 -21.8805
0.141738 -0.727543 -3.51938
-0.110019 -0.353029 -2.20623
-0.115073 -0.345083 -2.17506
-0.202181 -0.21981 -1.70971
-0.224566 -0.186331 -1.58502
-0.224566 -0.186331 -1.58502
-0.25062 -0.141378 -1.43295
-0.249277 -0.148441 -1.43486
-1.29748 1.32051 3.63647
-1.76846 2.08167 6.17327
-2.7866 3.49417 11.4711
4.61417 -7.36064 -26.4125
0.341549 -1.08995 -4.53374
0.341549 -1.08995 -4.53374
-1.6982 2.04332 5.77781
-1.66299 2.00337 5.59754
-1.97331 2.41544 7.20729
0.867748 -1.92758 -7.21695
0.0796631 -0.703492 -3.17382
-1.10779 1.11597 2.68684
-1.33384 1.48454 3.75694
-1.52156 1.84952 4.84034
-1.94016 2.53166 6.9538
-0.809656 0.681139 1.19174
-0.809656 0.681139 1.19174
-1.22627 1.35215 3.22576
-1.25769 1.43168 3.36228
-1.98187 2.65232 7.11788
-2.20278 3.01663 8.22945
-2.38493 3.39783 9.12254
-0.852642 0.778031 1.3746
-0.933339 0.951441 1.80691
-0.0752208 0.619671 -2.87655
0.151995 0.88823 -4.34248
0.151995 0.88823 -4.34248
0.129911 0.848977 -4.19507
0.00812478 0.69752 -3.41363
0.213213 0.943082 -4.73067
-0.111835 0.515 -2.6125
-0.111742 0.500718 -2.61296
-0.0560349 0.48388 -2.95103
1.24663 1.63516 -11.1407
0.553393 1.05863 -6.81899
0.624841 1.11248 -7.28684
0.291214 0.809924 -5.16155
-0.0553494 0.417744 -2.92507
0.86826 1.02337 -8.68031
-0.0152272 0.396267 -3.15635
-0.0152272 0.396267 -3.15635
-0.0725378 0.381974 -2.81349
-0.0917603 0.362131 -2.68238
-0.117073 0.334025 -2.51844
-0.0230217 0.363788 -3.1022
-0.0997272 0.298371 -2.6061
2.60016 1.81093 -19.186
1.50773 1.16959 -12.4885
1.50773 1.16959 -12.4885
0.0955781 0.375511 -3.82068
-0.139593 0.24029 -2.33622
-0.139593 0.24029 -2.33622
3.89535 1.87257 -26.789
1.50703 0.850249 -12.3786
1.50703 0.850249 -12.3786
0.572895 0.523961 -6.73773
-0.0425686 0.254038 -2.92894
-0.111775 0.219633 -2.50453
-0.192647 0.205825 -1.99939
0.803868 0.488146 -8.08578
0.608727 0.460291 -6.90592
0.149339 0.266429 -4.08456
-0.0279764 0.251988 -3.01564
-0.0537377 0.228901 -2.85067
-0.0603011 0.235957 -2.81441
1.85637 0.74517 -14.4111
0.98622 0.375086 -9.10047
-0.216302 0.138323 -1.8123
-0.230288 0.141424 -1.70646
1.36916 0.274327 -11.3095
0.625455 0.203295 -6.87491
-0.0614483 0.145931 -2.76062
-0.0868722 0.156832 -2.61999
-0.0934032 0.131836 -2.56342
-0.0934032 0.131836 -2.56342
-0.162661 0.125802 -2.14176
-0.193539 0.133069 -1.96093
-0.193539 0.133069 -1.96093
-0.215932 0.130211 -1.81057
0.787099 0.152873 -7.79598
0.787099 0.152873 -7.79598
0.719831 0.126873 -7.38583
0.719831 0.126873 -7.38583
-0.160945 0.103849 -2.14215
-0.174244 0.10795 -2.06023
-3.31186 0.155843 16.1392
4.77913 0.0850886 -31.2355
-0.129889 0.0763788 -2.30965
-0.182818 0.0845091 -1.99832
-0.210448 0.0888765 -1.82835
-0.223443 0.0956254 -1.74728
-0.237607 0.0971963 -1.64146
0.886609 -0.094666 -8.25779
0.238237 0.0112556 -4.48128
-0.11976 0.0566726 -2.36084
-0.120812 0.0457243 -2.34458
-4.84821 1.02568 24.6835
6.38742 -1.66629 -39.8515
-0.20896 0.0395258 -1.8111
-0.244315 0.0522955 -1.57971
-0.244315 0.0522955 -1.57971
-2.56827 0.785566 11.5351
0.136029 -0.0715069 -3.86589
0.0616137 -0.0715905 -3.42672
0.0346833 -0.0380847 -3.27893
-0.0860072 -0.00170351 -2.54198
-0.170886 0.0176955 -2.0306
-0.201449 0.0230815 -1.85211
-0.24528 0.0464857 -1.57469
0.32469 -0.177039 -4.90261
0.358151 -0.211516 -5.08674
0.143577 -0.125987 -3.87655
0.163819 -0.158169 -3.99428
-0.0512602 -0.0501923 -2.73428
-0.118196 -0.0165479 -2.33754
-0.118196 -0.0165479 -2.33754
-0.219801 0.00603036 -1.72134
6.70159 -3.09659 -41.0798
1.03821 -0.611306 -8.88453
-0.174021 -0.0308225 -1.99031
-0.209987 -0.0141076 -1.77718
-0.186676 -0.0323305 -1.91042
-0.220627 -0.0176324 -1.70592
-0.237583 -0.00582127 -1.59581
-3.65405 2.07797 17.3237
0.901819 -0.816066 -7.9929
6.90564 -5.06506 -41.2226
-0.20882 -0.0627629 -1.75486
-1.76998 1.16358 6.62718
0.203522 -0.436837 -4.05741
0.112555 -0.332993 -3.56252
0.0286755 -0.265346 -3.10224
-0.166295 -0.110948 -1.99127
-0.165843 -0.126576 -1.98717
-0.228462 -0.0638029 -1.62946
-0.236343 -0.0487839 -1.58081
-0.238194 -0.0542518 -1.56462
-6.17095 5.13028 30.6178
6.50357 -6.21044 -38.1736
6.50357 -6.21044 -38.1736
2.53876 -2.51438 -16.7301
1.03984 -1.1658 -8.63303
0.617779 -0.875206 -6.27511
0.485666 -0.741445 -5.55515
0.485666 -0.741445 -5.55515
0.200471 -0.47886 -4.01099
0.00589867 -0.292005 -2.94744
0.759703 -1.11543 -7.00705
-0.150921 -0.165615 -2.05769
-0.252162 -0.0721658 -1.46244
5.06243 -5.50789 -30.0951
0.580235 -0.991403 -5.98816
0.11228 -0.463204 -3.48687
-0.0407242 -0.324274 -2.64357
-0.182207 -0.153862 -1.8665
-0.236323 -0.10608 -1.55264
-0.256887 -0.0743541 -1.39365
-0.278531 -0.0432376 -1.27635
-0.287691 -0.0315612 -1.23223
1.26394 -1.80372 -9.625
0.521697 -0.980494 -5.64975
0.275655 -0.722001 -4.32795
0.0480657 -0.447582 -3.12188
-0.150959 -0.219672 -2.02465
-0.229558 -0.119225 -1.59203
-0.238551 -0.110903 -1.53467
-0.278808 -0.0614335 -1.27144
-0.284316 -0.0465867 -1.24808
-0.29272 -0.0426425 -1.20064
-0.0902597 -0.300859 -2.35563
-0.259604 -0.0890501 -1.37035
-0.265085 -0.0823379 -1.34116
-0.28082 -0.0659232 -1.25668
-0.28422 -0.0648689 -1.23883
-0.29079 -0.0511953 -1.20932
-0.300053 -0.0366262 -1.15493
-0.300053 -0.0366262 -1.15493
-1.84558 1.87595 6.72719
1.3266 -2.19485 -9.79963
-0.0970324 -0.328193 -2.29849
-0.238616 -0.145394 -1.51331
-0.268773 -0.0917765 -1.31495
-0.274629 -0.0806686 -1.28802
-0.278672 -0.0779446 -1.26526
-0.303964 -0.0440165 -1.13107
-1.77341 1.88295 6.29875
-2.24073 2.43927 8.80101
-2.24073 2.43927 8.80101
-2.50812 2.82572 10.1622
-2.93429 3.49936 12.3437
2.80135 -4.32799 -17.3991
1.53985 -2.56195 -10.8283
0.196251 -0.762873 -3.83302
-0.201439 -0.206603 -1.71985
-0.220379 -0.182606 -1.61395
-0.236888 -0.15058 -1.52379
-0.281044 -0.0793816 -1.24979
-0.283725 -0.0819238 -1.23429
-0.284824 -0.082313 -1.22621
-0.287482 -0.0789099 -1.21537
-1.23076 1.1693 3.33839
-2.24066 2.56986 8.72213
-2.24066 2.56986 8.72213
-2.09596 2.45972 7.90084
-2.09596 2.45972 7.90084
3.66798 -5.74856 -21.7656
0.677607 -1.45448 -6.32774
0.407373 -1.10558 -4.91255
0.195215 -0.787308 -3.81637
0.204863 -0.820162 -3.85905
0.117571 -0.695373 -3.40024
-0.093113 -0.376954 -2.29486
-0.120024 -0.344165 -2.14658
-0.135244 -0.321139 -2.0631
-0.229081 -0.177152 -1.55995
-0.226945 -0.188183 -1.57048
-0.265443 -0.11354 -1.33295
-0.292554 -0.0758303 -1.18374
-0.295132 -0.0701753 -1.16869
-1.01538 0.918149 2.2642
-1.08952 1.00129 2.64108
-1.03421 0.948482 2.35978
-1.2158 1.1911 3.24057
0.0337722 -0.60071 -2.94866
-2.63507 3.41172 10.6137
-2.71776 3.61239 10.9677
-4.12627 5.67698 18.2391
0.255625 -1.00314 -4.06789
-1.14145 1.18493 2.8391
-1.56711 1.91693 5.06637
-3.22299 4.49981 13.4997
-3.22299 4.49981 13.4997
-0.847493 0.739502 1.36685
-0.850689 0.751066 1.37893
-1.22468 1.33762 3.23245
-1.22468 1.33762 3.23245
-1.25346 1.40795 3.34878
-0.86011 0.770444 1.41975
-0.909101 0.875007 1.70786
-0.894112 0.887583 1.6191
0.0534522 0.948325 -3.83358
0.0534522 0.948325 -3.83358
-0.0848728 0.699391 -2.87523
-0.1131 0.650038 -2.68463
-0.133623 0.597231 -2.53794
0.526497 1.67951 -6.96833
-0.161394 0.526567 -2.33551
-0.170873 0.523847 -2.27233
-0.170873 0.523847 -2.27233
-0.170262 0.502037 -2.26624
-0.179549 0.482127 -2.19639
-0.00713138 0.66969 -3.31865
0.106547 0.7805 -4.05639
-0.0766888 0.555111 -2.85946
-0.0887189 0.531619 -2.77749
0.588658 1.11648 -7.05276
0.0655819 0.639523 -3.74831
-0.00670199 0.535933 -3.27774
-0.180753 0.346825 -2.12889
-0.0558861 0.466262 -2.94409
-0.186337 0.305094 -2.07658
5.29912 4.11218 -35.9275
0.226361 0.607712 -4.71082
1.24475 1.12388 -10.9395
0.115251 0.45367 -3.97288
-0.128341 0.299933 -2.42979
-0.128341 0.299933 -2.42979
-0.176233 0.254252 -2.12315
0.0665283 0.382269 -3.63944
-0.129149 0.26145 -2.41344
-0.204298 0.210673 -1.92778
0.400129 0.426735 -5.66071
-0.0881205 0.247701 -2.65263
-0.212926 0.197419 -1.85869
-0.212926 0.197419 -1.85869
4.35171 1.92309 -29.4525
2.03664 0.963501 -15.6221
0.166472 0.313385 -4.20898
0.0768745 0.276498 -3.65475
0.0107544 0.261576 -3.25185
-0.0725903 0.229547 -2.73776
-0.0840452 0.22143 -2.66536
-0.11134 0.205761 -2.49495
0.321393 0.271337 -5.10597
-0.100795 0.160867 -2.53817
-0.16328 0.167329 -2.16659
-0.237695 0.136891 -1.65825
2.4496 0.544834 -17.8533
0.721358 0.239189 -7.46278
0.291641 0.175981 -4.88506
-0.0553436 0.164507 -2.81231
-0.111998 0.154362 -2.4684
-0.184833 0.135368 -2.01396
-0.236869 0.130367 -1.66013
-0.241993 0.120741 -1.6233
2.10739 0.334235 -15.679
3.20506 0.271314 -22.0393
0.0491234 0.105487 -3.42104
-0.0460771 0.116697 -2.84615
-0.115565 0.122082 -2.42101
-0.155813 0.118143 -2.17922
-0.178674 0.0985291 -2.0293
-0.184895 0.0996099 -1.98861
-0.205606 0.108291 -1.86951
-0.230896 0.108991 -1.68494
-0.246493 0.099921 -1.58822
3.16009 -0.146753 -21.5951
0.591842 0.0951334 -6.6104
0.0255232 0.0617227 -3.25995
-0.145765 0.0944146 -2.22825
-0.157141 0.0943636 -2.15569
-0.20931 0.0963235 -1.83843
-0.232872 0.0953175 -1.66437
-0.141158 0.0686015 -2.23871
-0.202566 0.0745748 -1.86835
-0.202566 0.0745748 -1.86835
-0.21953 0.0781269 -1.76224
-0.23068 0.0763683 -1.67203
-2.85761 0.582255 13.2563
-6.32228 1.40166 33.2602
-7.51793 1.76847 40.1755
1.50815 -0.369041 -11.7586
0.895992 -0.140377 -8.2709
0.0102537 0.0126523 -3.14606
-0.00911402 -0.00456474 -3.02167
-0.0292804 -0.000193613 -2.90253
-0.0997617 0.0345326 -2.47011
-0.246922 0.0580113 -1.56722
0.603389 -0.187538 -6.53831
0.0251795 -0.0452887 -3.21826
1.88845 -0.882072 -13.7428
0.71914 -0.374941 -7.12342
0.584256 -0.309641 -6.3546
-0.0935209 -0.0468183 -2.4711
-0.174559 -0.0141798 -1.99457
-0.178946 0.0011227 -1.97979
-0.22328 0.0107248 -1.70658
-0.22328 0.0107248 -1.70658
-0.242521 0.0338689 -1.58189
1.55514 -0.931719 -11.7616
1.55514 -0.931719 -11.7616
0.242201 -0.22483 -4.41365
0.177354 -0.201698 -4.04652
-3.76152 1.87449 18.138
0.760961 -0.614591 -7.24763
0.580606 -0.477037 -6.26054
0.184663 -0.277249 -4.04646
0.165019 -0.250041 -3.95101
-0.155409 -0.0522285 -2.08594
-0.155409 -0.0522285 -2.08594
-0.151925 -0.0630595 -2.10172
-0.199736 -0.0348674 -1.83226
-0.00667411 -0.192038 -2.93836
-0.0419843 -0.150329 -2.74525
-0.169564 -0.0743023 -1.99266
-2.84287 1.86399 12.7152
0.0376603 -0.258346 -3.1507
0.449734 -0.648109 -5.39816
-0.16037 -0.117325 -2.02338
-0.240606 -0.0466338 -1.5512
-0.00443147 -0.273831 -2.89405
-0.0453458 -0.249165 -2.65537
-0.0453458 -0.249165 -2.65537
-0.2103 -0.0900526 -1.73401
-0.206581 -0.0967484 -1.74933
-2.58588 2.2068 10.9521
-2.58588 2.2068 10.9521
0.678736 -0.963008 -6.59543
0.198907 -0.519732 -3.98351
-0.0389922 -0.278714 -2.68669
-0.0945162 -0.238522 -2.36345
-0.251462 -0.0649009 -1.46683
-0.254458 -0.059059 -1.45251
4.59318 -5.31865 -27.3671
-0.0366395 -0.308007 -2.68106
-0.0565316 -0.311056 -2.55611
-0.0974059 -0.246088 -2.3432
-0.130794 -0.217784 -2.15332
-0.23863 -0.103132 -1.53466
-0.279468 -0.0448737 -1.27064
-0.288221 -0.0348203 -1.23008
-0.291926 -0.0343848 -1.20833
0.0241135 -0.423485 -2.98338
-0.228641 -0.128703 -1.59315
1.52356 -2.23687 -10.93
-0.199165 -0.178305 -1.75271
-0.276335 -0.0689057 -1.28162
-0.282233 -0.062334 -1.25059
-0.282233 -0.062334 -1.25059
-0.302609 -0.038121 -1.1407
-7.13323 8.34178 34.5689
-7.13323 8.34178 34.5689
6.81679 -9.30791 -38.3111
0.277114 -0.787055 -4.29762
0.0260198 -0.504354 -2.94488
-0.13017 -0.282103 -2.12389
-0.258157 -0.104355 -1.37171
-0.275372 -0.0818206 -1.28138
-0.281007 -0.0757072 -1.25154
-0.296626 -0.0512683 -1.1687
-0.30225 -0.0479064 -1.14022
-0.30309 -0.0474673 -1.13429
-7.95477 9.89471 38.6819
1.20581 -2.14054 -9.09379
0.0991431 -0.640238 -3.31567
-0.289111 -0.0761841 -1.20581
-0.294807 -0.0601069 -1.17649
-0.296271 -0.0667016 -1.16405
-0.298937 -0.0561756 -1.15439
-0.301594 -0.0579628 -1.13775
0.289877 -0.937099 -4.30782
0.00992394 -0.52501 -2.84125
-0.265249 -0.117246 -1.33244
-0.295163 -0.0760825 -1.16604
-1.20549 1.15952 3.20746
-2.03427 2.41732 7.54837
-3.62698 4.78515 15.7158
-3.06696 4.1622 12.7537
-9.89738 14.4137 47.412
-1.20344 1.28455 3.13029
-1.20344 1.28455 3.13029
-2.77121 3.7918 11.1972
0.0161004 0.866566 -3.57173
-0.0535414 0.730568 -3.07714
-0.104081 0.653564 -2.74626
-0.104081 0.653564 -2.74626
0.2891 1.26891 -5.367
0.42251 1.42689 -6.23373
-0.168822 0.492864 -2.27073
-0.17962 0.481246 -2.19612
-0.0683305 0.584746 -2.91563
0.255886 0.926412 -4.9892
-0.113289 0.398913 -2.56403
-0.124478 0.395923 -2.4963
0.0890578 0.499947 -3.83657
0.0970779 0.461096 -3.86764
-0.0479863 0.359374 -2.95059
-0.0817199 0.329903 -2.7277
-0.162746 0.273109 -2.21278
0.0623017 0.362762 -3.6062
0.0623017 0.362762 -3.6062
-0.100916 0.266318 -2.58464
-6.89426 -2.60397 38.3376
0.426796 0.493236 -5.84877
0.0902949 0.34913 -3.76745
-0.10717 0.241038 -2.53578
-0.147152 0.223034 -2.28854
0.140198 0.306137 -4.04722
-0.0724917 0.213077 -2.73151
1.31437 0.563524 -11.1399
0.100942 0.225798 -3.7768
0.118471 0.201353 -3.87051
-0.0445095 0.198746 -2.89264
-0.0445095 0.198746 -2.89264
-0.0576719 0.184399 -2.8072
0.0046392 0.144617 -3.17166
-0.116008 0.13503 -2.42987
-0.17522 0.132586 -2.06979
0.321376 0.158614 -5.04291
-0.139177 0.119444 -2.2841
0.745604 0.0624503 -7.4893
0.138547 0.0499616 -3.92414
0.138547 0.0499616 -3.92414
-0.241485 0.0876564 -1.61142
-0.241485 0.0876564 -1.61142
0.684314 -0.101127 -7.05484
0.428692 -0.050144 -5.56133
-0.014426 0.0539571 -3.0158
-0.203012 0.0650621 -1.8617
-0.23593 0.0719722 -1.63978
-0.242822 0.056142 -1.59297
0.286497 -0.171286 -4.69008
0.0994846 -0.104118 -3.63121
-0.0729256 -0.0448775 -2.60682
-0.141228 -0.0169429 -2.19537
-0.241475 0.0221235 -1.58255
0.381928 -0.28548 -5.19526
-0.126761 -0.0495005 -2.26684
-0.163237 -0.0389184 -2.0504
-0.222442 -0.00934664 -1.70251
2.73629 -1.56929 -18.4345
-0.0624896 -0.128959 -2.62583
-0.079334 -0.107464 -2.54077
1.28125 -1.06343 -10.0959
0.433543 -0.484817 -5.38749
0.373375 -0.455814 -5.04391
-0.129494 -0.098041 -2.22921
-0.145118 -0.0798142 -2.13935
-0.164774 -0.069662 -2.01879
-0.193527 -0.0536252 -1.85638
-0.193527 -0.0536252 -1.85638
3.40175 -2.70254 -21.7432
3.40175 -2.70254 -21.7432
0.0350009 -0.238076 -3.15163
-0.0144326 -0.196612 -2.87601
-0.185553 -0.0811058 -1.89133
-7.40904 5.77788 37.5355
5.15366 -4.60033 -31.1776
-0.113556 -0.154784 -2.29317
-0.152061 -0.125806 -2.06863
-0.252227 -0.0385337 -1.47678
-5.94974 5.31536 29.1913
1.31745 -1.55205 -10.0729
0.0902115 -0.411709 -3.3871
-0.0510572 -0.281251 -2.6014
-1.66487 1.38824 5.92366
0.402978 -0.796592 -5.05838
0.266343 -0.66607 -4.30842
-0.260279 -0.0613044 -1.38078
-1.96767 1.74896 7.50918
0.364578 -0.781767 -4.83804
-0.00467952 -0.383292 -2.83077
-0.263617 -0.0734502 -1.35513
-0.293155 -0.0351322 -1.20149
2.06439 -2.96241 -13.7386
0.938497 -1.55882 -7.80512
0.310058 -0.780488 -4.50527
-0.277018 -0.0708448 -1.275
-0.280976 -0.0672903 -1.2552
-0.298844 -0.0382972 -1.16058
-0.305182 -0.0305055 -1.13205
-0.305182 -0.0305055 -1.13205
-2.33073 2.48299 9.26749
0.634598 -1.28646 -6.1651
-0.135921 -0.269342 -2.09101
-0.135921 -0.269342 -2.09101
-0.299451 -0.0484488 -1.15671
-0.300794 -0.0509203 -1.14493
-0.140682 -0.284727 -2.05174
-0.190648 -0.216199 -1.78204
-0.193028 -0.226786 -1.7635
-0.22645 -0.177286 -1.57813
-0.282437 -0.0800071 -1.24203
-2.31444 2.76978 9.03245
-0.125143 -0.32834 -2.12355
-0.296628 -0.070253 -1.16069
-2.10174 2.56861 7.8898
0.0281023 -0.580784 -2.91681
1.73049 -3.29816 -11.5607
0.869305 1.85286 -9.02391
0.0180022 0.690021 -3.46838
0.768716 1.61687 -8.30274
-0.094138 0.51416 -2.73651
-0.121237 0.478253 -2.54634
0.109903 0.709343 -4.04515
1.13866 1.63106 -10.4985
0.231373 0.773975 -4.80163
0.68719 1.15493 -7.63818
0.698101 1.14428 -7.73901
0.698101 1.14428 -7.73901
0.550304 1.02271 -6.78493
0.724737 0.92226 -7.78014
0.724737 0.92226 -7.78014
0.111327 0.498922 -3.97017
-5.33733 -2.48496 29.2325
5.01396 3.12424 -33.819
5.01396 3.12424 -33.819
-0.172289 0.268481 -2.14867
-0.190611 0.260619 -2.03166
-0.1907 0.254844 -2.03308
4.53694 2.64406 -30.9081
1.41186 0.792658 -11.8209
-0.129939 0.232726 -2.39581
-0.129939 0.232726 -2.39581
-0.160401 0.192473 -2.19017
-0.160401 0.192473 -2.19017
-0.0120889 0.189712 -3.08275
-0.140633 0.169565 -2.30323
-0.165745 0.149189 -2.1387
-0.184929 0.138267 -2.01469
-0.217128 0.134488 -1.80957
-0.227038 0.134915 -1.72239
-0.242147 0.135698 -1.62901
0.658471 0.138904 -7.00681
0.0323244 0.111111 -3.32236
-0.0997849 0.119771 -2.51382
-0.144894 0.107621 -2.23937
-0.168204 0.10866 -2.0962
-0.196196 0.121792 -1.9357
-0.216583 0.110946 -1.79836
-0.217618 0.121391 -1.79667
-0.247627 0.114255 -1.58802
-0.247627 0.114255 -1.58802
-0.15382 0.0981642 -2.17684
-0.20786 0.0885092 -1.8475
-0.228838 0.10109 -1.69333
-0.23195 0.0929608 -1.67203
-0.239984 0.092086 -1.62548
-0.238219 0.0882097 -1.63374
0.0690196 -0.0414736 -3.47551
-0.139085 0.0414051 -2.23411
-2.68625 0.984974 12.0996
-6.91944 2.34372 36.546
0.0442905 -0.0796841 -3.31792
-0.0217089 -0.0582682 -2.92177
-0.247114 0.0522068 -1.56354
0.09047 -0.149226 -3.55683
0.09047 -0.149226 -3.55683
-0.124823 -0.0167405 -2.29265
-0.137163 -0.0286093 -2.20955
-0.137163 -0.0286093 -2.20955
-0.215069 0.0239535 -1.76801
-0.235806 0.0269935 -1.62387
2.01979 -1.13405 -14.45
1.36038 -0.865972 -10.6755
-0.0238235 -0.143673 -2.87083
-0.0587165 -0.124303 -2.65686
-0.0896773 -0.0894688 -2.4809
-0.10817 -0.0816419 -2.36305
-0.10817 -0.0816419 -2.36305
1.4194 -1.25036 -10.7985
1.4194 -1.25036 -10.7985
0.277911 -0.397218 -4.51598
0.277911 -0.397218 -4.51598
0.536243 -0.688488 -5.89134
-0.167092 -0.093598 -1.99868
-2.1255 1.51328 8.54929
1.03752 -1.11554 -8.61732
0.0847901 -0.319479 -3.40387
-0.182677 -0.0927371 -1.90293
-0.183871 -0.120558 -1.87942
-0.183871 -0.120558 -1.87942
-0.192076 -0.0991951 -1.83671
-0.247922 -0.05533 -1.49959
-0.247922 -0.05533 -1.49959
0.509299 -0.886922 -5.63209
0.263307 -0.596288 -4.32041
-0.161741 -0.159974 -1.99213
-2.38014 2.20904 9.74394
-2.38014 2.20904 9.74394
0.428327 -0.838408 -5.1763
-0.186509 -0.142199 -1.84649
-0.211393 -0.126436 -1.70441
-0.256301 -0.058448 -1.40362
-1.52935 1.3494 5.15866
-1.52935 1.3494 5.15866
-0.194435 -0.151543 -1.78841
-0.26063 -0.0609406 -1.37901
-0.288262 -0.0338375 -1.23021
-1.27613 1.12591 3.60712
-2.0272 2.05653 7.72182
5.11313 -6.72909 -29.5527
-0.291154 -0.0448656 -1.21005
0.0434025 -0.508101 -3.04544
-0.130021 -0.279821 -2.12102
-0.256486 -0.0895811 -1.3895
-0.253616 -0.098298 -1.40145
-0.253616 -0.098298 -1.40145
-0.26575 -0.0867919 -1.33562
-0.292581 -0.0486209 -1.19885
-0.292581 -0.0486209 -1.19885
-0.293568 -0.0472993 -1.18845
1.3976 -2.43426 -10.0845
0.0151314 -0.518327 -2.87478
-0.053597 -0.408562 -2.51878
-0.192647 -0.210911 -1.76894
-0.219058 -0.170146 -1.63035
-0.251602 -0.117519 -1.40433
-0.269503 -0.0833796 -1.31454
-0.27186 -0.0868285 -1.3004
-0.27186 -0.0868285 -1.3004
-0.275279 -0.078686 -1.2832
-0.27975 -0.0762375 -1.26011
-0.294792 -0.0530032 -1.17772
-0.293311 -0.0579322 -1.18347
-0.299163 -0.0484868 -1.15465
-1.25071 1.24506 3.41594
-5.12668 6.90011 23.4362
-9.57916 13.3182 46.1641
-9.57916 13.3182 46.1641
1.05416 -2.03003 -8.25777
1.05416 -2.03003 -8.25777
0.227314 -0.845666 -3.97974
0.227314 -0.845666 -3.97974
0.00738682 -0.523314 -2.82707
-0.125108 -0.329767 -2.12313
-0.116178 -0.353415 -2.16513
-0.241952 -0.144051 -1.48919
-0.241231 -0.156064 -1.49082
-0.28573 -0.0747583 -1.22657
-0.290737 -0.0709409 -1.20315
0.545048 -1.4083 -5.57426
0.076232 -0.675538 -3.15805
0.0452597 -0.622715 -3.00664
-0.201049 -0.226161 -1.71004
-0.237408 -0.171084 -1.50889
-0.283094 -0.093316 -1.23291
-0.295547 -0.066345 -1.16809
-0.297008 -0.0638249 -1.16138
0.371552 -1.1691 -4.67549
-0.27579 -0.111498 -1.28162
-0.278203 -0.109192 -1.26934
-1.44367 1.76569 4.41455
-0.846295 0.766701 1.34197
-0.846295 0.766701 1.34197
-0.324574 -0.244234 -1.49204
-0.320007 -0.276859 -1.51558
-0.320007 -0.276859 -1.51558
-0.335495 -0.225161 -1.36683
-0.0610682 0.74734 -3.04024
0.0871806 0.78351 -3.92223
-0.076248 0.535602 -2.84576
-0.155317 0.408155 -2.31239
-0.160458 0.405271 -2.28573
0.204949 0.740558 -4.64058
0.128248 0.660883 -4.13388
0.128248 0.660883 -4.13388
0.33238 0.744546 -5.39372
-0.203526 0.265109 -1.95253
-0.185884 0.263532 -2.06028
-0.143761 0.24054 -2.31678
0.272095 0.407813 -4.87081
-0.187775 0.196549 -2.02394
-0.187775 0.196549 -2.02394
0.45049 0.393325 -5.93103
0.199728 0.264639 -4.38626
-0.0301775 0.185058 -2.97261
-0.154845 0.159888 -2.20842
-0.228604 0.158092 -1.72355
-0.111714 0.143912 -2.465
-0.223664 0.117506 -1.75553
-0.233311 0.118452 -1.67202
0.0389566 0.0778657 -3.35603
-0.11019 0.0868816 -2.43663
-0.213265 0.0794566 -1.80357
0.716762 -0.244634 -7.16677
-0.209013 0.0590563 -1.81954
-4.02737 1.62034 19.7911
-0.187936 0.019874 -1.93052
-7.51174 3.0699 39.7196
-7.51174 3.0699 39.7196
-0.228057 0.0209105 -1.6729
-0.236188 0.0348233 -1.62532
-0.0741566 -0.0906853 -2.57899
3.18366 -2.56096 -20.5281
-0.0870192 -0.136578 -2.4641
-0.197988 -0.0546988 -1.82978
-0.251521 -0.0113697 -1.49266
-0.233958 -0.0425434 -1.60052
-8.17213 7.05243 41.4235
7.44473 -6.99609 -43.322
0.62781 -0.844946 -6.36424
-0.180148 -0.0929146 -1.91758
-0.248735 -0.0410831 -1.49834
7.01574 -7.19438 -40.7362
0.453569 -0.731556 -5.38471
0.0830563 -0.391741 -3.35344
-0.254279 -0.0388717 -1.46223
-1.78513 1.51605 6.57043
2.16614 -2.50691 -14.5607
0.44855 -0.818819 -5.33195
-5.00686 5.30349 23.6788
-0.24946 -0.0743678 -1.48245
-1.67286 1.56874 5.87795
-1.74047 1.65712 6.22334
2.40097 -3.26305 -15.5677
2.40097 -3.26305 -15.5677
-0.285121 -0.0406818 -1.24624
-7.64018 8.95056 37.3582
-0.0958517 -0.314176 -2.3116
-0.194729 -0.169687 -1.78243
-0.210754 -0.150174 -1.6941
-0.206511 -0.164626 -1.71242
-0.206511 -0.164626 -1.71242
-0.23541 -0.119954 -1.54873
-0.23868 -0.117775 -1.53091
-0.250076 -0.088885 -1.42461
-1.62768 1.69402 5.55716
3.99036 -5.63428 -23.7437
-0.0927716 -0.330368 -2.32795
-0.117628 -0.295342 -2.1868
-0.261968 -0.087321 -1.3583
-0.284716 -0.0604322 -1.24006
-0.287284 -0.0550631 -1.22649
-1.60233 1.7266 5.3693
0.199989 -0.777341 -3.83901
-0.0359832 -0.429407 -2.61328
-0.24306 -0.140585 -1.48153
-0.303328 -0.0435378 -1.13469
-1.80537 2.08599 6.39722
-0.067593 -0.418926 -2.43188
-0.249148 -0.133303 -1.44477
-0.277269 -0.0894911 -1.27002
-0.293847 -0.0589293 -1.18021
-0.304094 -0.0483852 -1.13025
-0.302205 -0.0544827 -1.13771
-1.81337 2.20849 6.37381
0.0364675 -0.6216 -2.95542
-0.198851 -0.230759 -1.72781
-0.284928 -0.0889298 -1.22489
-0.284131 -0.0909346 -1.2283
-0.284131 -0.0909346 -1.2283
-0.291474 -0.0770462 -1.18897
-9.33726 14.0679 44.3528
-9.33726 14.0679 44.3528
2.55721 -4.65058 -15.7613
-1.90005 2.5088 6.73871
-0.909527 0.924785 1.6861
-0.322875 -0.248877 -1.50195
-0.331992 -0.222903 -1.44098
-0.323842 -0.249349 -1.49592
-0.323599 -0.253197 -1.49524
-0.335017 -0.229713 -1.4145
0.0498722 0.924447 -3.81013
-0.123132 0.625318 -2.61971
0.987393 2.11815 -9.86866
0.00812478 0.69752 -3.41363
0.513613 1.22703 -6.6028
0.262741 0.987498 -5.03011
0.22073 0.932442 -4.78333
0.0706835 0.741062 -3.82474
0.0245814 0.536783 -3.45683
0.628629 0.981711 -7.25251
0.0851301 0.520833 -3.82217
0.0851301 0.520833 -3.82217
-0.0388416 0.437476 -3.04046
-0.0917603 0.362131 -2.68238
0.0955781 0.375511 -3.82068
-0.0934851 0.238218 -2.61669
-0.189433 0.200186 -2.01118
-3.66171 -0.695988 18.6347
0.0503661 0.26777 -3.49174
-0.101012 0.0966814 -2.4962
0.163889 0.0751395 -4.07681
-2.59968 0.483867 11.8069
-0.0683151 0.0412922 -2.66684
-0.175899 0.0773893 -2.03209
-0.189896 0.0523742 -1.93347
-0.235717 0.0551034 -1.63356
-0.128576 -0.0336013 -2.26808
-0.209087 0.00726135 -1.79587
-0.249083 0.0389625 -1.54031
0.00421235 -0.134454 -3.04436
-0.243188 0.0180898 -1.5709
0.130992 -0.235369 -3.75304
-0.0463937 -0.131838 -2.7337
-0.0463937 -0.131838 -2.7337
-0.209987 -0.0141076 -1.77718
0.324394 -0.414889 -4.78427
-3.44086 2.52878 15.8534
0.526761 -0.646337 -5.85359
-0.0670007 -0.213424 -2.54929
-0.243503 -0.0364711 -1.53606
0.265886 -0.580207 -4.35388
1.51117 -1.81804 -11.065
-0.235223 -0.0890675 -1.56648
-0.287355 -0.0294211 -1.23494
-1.8811 1.74302 7.02213
-0.168834 -0.187825 -1.93395
-0.246418 -0.0897654 -1.49021
0.134374 -0.577648 -3.55855
-0.23366 -0.123617 -1.56024
-0.290937 -0.0369614 -1.21261
-2.2396 2.53345 8.75679
-2.2396 2.53345 8.75679
-0.111263 -0.301869 -2.22633
-0.245543 -0.1221 -1.47543
1.82079 -2.99019 -12.2763
-0.240041 -0.148369 -1.50675
-0.274863 -0.0765884 -1.28632
-9.83228 13.9386 47.2381
2.23636 -3.73449 -14.3727
-0.189237 -0.22808 -1.78129
-0.287954 -0.070647 -1.21633
-0.290846 -0.0728186 -1.20181
-3.61274 4.92756 15.5775
-0.282723 -0.0914202 -1.23564
0.0570755 -0.665027 -3.05772
-1.63252 2.06439 5.371
-0.329266 -0.222718 -1.45694
-0.325642 -0.24899 -1.48077
-0.333348 -0.229291 -1.42965
-0.0561431 0.747013 -3.08414
-0.0561431 0.747013 -3.08414
0.0215599 0.723854 -3.51428
0.262741 0.987498 -5.03011
-0.158478 0.290554 -2.24571
0.352002 0.483452 -5.3811
-0.0811036 0.283447 -2.7107
-0.0227537 0.273216 -3.06347
-0.178031 0.220353 -2.0928
-0.222497 0.197976 -1.79106
-0.0225299 0.177867 -3.01479
-0.0225299 0.177867 -3.01479
-0.128647 0.169399 -2.38033
-0.209811 0.147685 -1.85852
-0.218394 0.149361 -1.80876
-0.218394 0.149361 -1.80876
1.02927 0.157108 -9.2369
-0.197708 0.116958 -1.92482
-0.209122 0.110287 -1.84582
-0.157141 0.0943636 -2.15569
0.903407 -0.0964229 -8.33373
0.0102537 0.0126523 -3.14606
-0.189896 0.0523742 -1.93347
0.423622 -0.287298 -5.44265
-0.104334 -0.0584648 -2.40178
-0.104334 -0.0584648 -2.40178
-0.174559 -0.0141798 -1.99457
-0.222382 0.0042648 -1.70877
-0.234643 0.00795203 -1.61873
-0.246135 0.0194626 -1.54576
6.49292 -4.30505 -39.132
0.0365343 -0.192812 -3.21237
-0.0905177 -0.129483 -2.45222
-0.174705 -0.0560814 -1.97039
-0.136249 -0.110118 -2.17845
-0.248176 -0.014445 -1.51609
-4.04434 3.20466 19.0601
-4.04434 3.20466 19.0601
-0.25174 -0.0320835 -1.48236
-0.288221 -0.0348203 -1.23008
-1.16832 1.04792 3.04224
-0.151736 -0.252864 -2.00104
-0.264708 -0.0954616 -1.33768
-0.885143 0.718939 1.57506
0.121286 -0.687368 -3.41688
0.121286 -0.687368 -3.41688
-0.264851 -0.104316 -1.33317
-0.253253 -0.12548 -1.34529
-0.283256 -0.0861785 -1.23502
-1.2674 1.41199 3.43142
-0.0354272 0.704638 -3.16561
0.685363 1.6226 -7.85368
0.124545 0.79722 -4.15123
0.951946 1.59053 -9.3785
4.79756 4.01252 -32.9277
1.60934 1.61013 -13.278
1.60934 1.61013 -13.278
-0.152374 0.289252 -2.28165
-0.187874 0.255753 -2.04995
0.239847 0.456074 -4.71043
-4.80117 -0.526631 25.1346
-0.177168 0.152807 -2.07227
-0.177168 0.152807 -2.07227
-0.234454 0.150341 -1.68313
-0.234454 0.150341 -1.68313
5.31916 0.350715 -34.5329
-0.136012 0.104111 -2.29085
0.259475 0.0580301 -4.61717
-2.939 0.509227 13.7937
0.133518 -0.167698 -3.80803
-0.245108 0.0388271 -1.56918
0.203436 -0.328404 -4.11443
-1.87491 1.48371 7.09186
0.0403571 -0.512876 -3.02546
-1.99993 2.23097 7.47477
-0.121117 -0.305792 -2.16186
-0.121117 -0.305792 -2.16186
2.40577 -4.05435 -15.1375
-0.22645 -0.177286 -1.57813
0.256755 -0.983623 -4.08291
1.59349 2.03202 -13.3691
0.0608098 0.479693 -3.66698
-3.56305 -0.466146 17.9103
-0.11658 0.0237308 -2.37623
0.431506 -0.419212 -5.41759
-2.39096 1.74156 10.0265
0.52585 -0.740528 -5.79206
1.02967 -1.29615 -8.49487
4.99839 -5.58915 -29.5506
0.148602 -0.464867 -3.70982
-1.88242 2.15136 6.84368
-1.88242 2.15136 6.84368
-2.64911 3.33865 10.7225
-4.57933 6.48141 20.4315
